117 115.940026469141 115.343561086421 116 116 116.18403431644 116.094797461867 115.59023446914 115.223006419751 115.963419259257 115.150178370374 115 114.523696592592 113.933067671627 113.765047703703 113.765047703703 112.315849876545 111.765047703703 112.467209086425 113.726361630456 113.535288816168 114.321232197532 114.06771765191 112.610312441505 110.307421629625 107.989560181879 107.798487367591 107.094132148145 105.910488483196 104.405205333337 103 103 103 102.449305679012 102 102.177176098762 102.990416987653 102.196008691355 101.38776928395 100.674493925649 100.178866247718 100 100 100.67876859259 101 101.610500740744 102.790857274929 101.354859787886 101.234952296297 102.779362386024 104.743576493823 106.185029135803 106.998270024694 107.811510913576 105.64652427297 102.584633531693 100.469904592595 100.469904592595 100.469904592595 99.778614913579 99.4699045925945 99.7880094814846 100.566564006351 101.188732080955 100.304836234675 100 102.010254929412 105.680907456795 107.310266489386 109.318893895744 109.913758004032 109.553820839508 108.481159901234 107 107 107.863407902623 108.627205288134 108.750626637269 108.619843659555 110.868493511941 112.17156435827 112.087192857376 111.46476969131 111.205736691361 111.966503665568 110.531094702074 110.083300137962 109.091935604935 107.732726913577 107.080513975306 107.893754864197 107.459114522572 107.633213236082 107.666189037037 106.705896296292 105.079414518527 105.181743502544 104.648177777778 103.834936888887 102.380593382723 99.067664677447 93.9971465298123 92.50018485236 94.9246542345859 99.6787650370446 104.631642314743 110.133255722694 119.572381437284 122.466908839502 120.961003851859 117.920481460374 112.450447629197 109.109405629623 106.311360519998 104.808340744782 101.976839194669 92.5837961481977 82.8249054815039 79.0165037037025 83.0784517733869 92.0717263149435 100.76703543902 103.637853366009 110.190988891249 117.65278534793 122.083216599369 122.028189203626 121.023463727719 114.459461728234 109.870366641578 108 108 108.047204740743 108.860445629634 106.977940148148 106 106.069428461569 106.587803320183 109.218598801145 108.388706941968 105.933752232182 104.149890607845 104.175279012344 104.988519901235 105.802094222219 106 105.571423999999 104.758183111108 104 104 102.796461648917 102.613738030616 102.691645234568 101.90697352388 101.284805449277 102.510317259832 102.675886446974 101.54395553446 99.2916682816373 96.2373782127271 97.6727871762216 98.6231881481506 99.4364290370333 100.440679329437 101.779828744106 101.970901558393 100.62054795062 98.1063055769825 95.3606226381781 93.439490325308 93.2484175110202 91.9006989575875 93.3122254211478 94.7278946631769 93.2432026546508 87 87 87 87.4219274497186 90.3183307453902 96.3181119999972 88.9989439999768 88.8672416824302 89.4771824749239 88.8156922892007 87 87 87 87 87.0917720652673 89.0338854293699 96.1034060937972 98.1609831318951 99.8774107654337 101.01959402827
116.838918849244 116.241419709317 115.71686522163 116.089170255727 116.551644646658 117.351964444445 116.972156049382 116.158915160499 115.664867666149 115.984222020193 115.633455522242 114.81453898847 113.955015901233 112.98443944068 111.862638617282 111.862638617282 110.413440790124 110.168497727991 110.933827881077 111.697983604937 110.884742716046 111.653775407409 112.206336533623 111.596082172839 109.738740938265 107.386885530866 106.573644641974 105.378867031105 104.653812594388 104.005648763105 103.062917820704 103.525581828033 103.568680691359 103.017986370371 102.568680691359 102.544343537449 102.432635644467 102.084542333243 101.735933070825 101.568680691359 101.194217011511 100 100 101.064771185096 101.288884399275 101.436910749083 102.447595431853 102.559349125528 102.568680691359 103.685775407417 105.100828387889 106.185029135803 106.998270024694 108.273001500955 107.048898891007 104.82238301234 103.137361382718 103.174216384797 103.636690775733 103.014752395062 102.418935665516 102.455466271608 103.137361382718 103.137361382718 101.202735101706 100.24657972311 100.275345180551 101.220729947653 103.321932239802 107.037370186302 109.215456436663 109.553820839508 108.481159901234 107 107 108.795874395216 109.568680691359 109.568680691359 109.688758964497 110.390291960407 109.995891539883 110.191860085611 110.87772887725 111.657418898839 111.991814603209 111.641048105255 110.556161059366 109.350134948927 108.301407604936 107.603407923524 107.954174421479 108.402054833654 107.976604392111 107.287340194879 106.78952184507 105.625514458236 106.342214320987 106.315593511704 105.737345975308 104.161538114734 100.380866370366 94.6881801481283 93.5686806913592 95.9014471111072 99.9292186411051 103.938433411967 108.355404354377 118.630057098298 121.898228148143 120.589275509782 118.13330841923 113.741691143579 110.443134024685 106.852017259723 103.488422384208 99.3313907214673 92.0151154568385 82.2562247901447 79.1998070424012 85.2755342934451 97.223841254833 108.556964479732 109.720971866578 109.857400946724 116.735898350823 123.124283997595 123.516873673918 120.501733009965 112.831479015663 108.778173646845 107.670576334088 108 108.047204740743 108.860445629634 107.361242279655 106.568680691359 107.032226222984 108.573659654306 111.826623209871 109.512395654486 106.922288987648 104.794874387219 103.706276110906 104.981991390733 105.345958725392 105.781248505044 105.571423999999 104.895699706665 104.537370396229 104.074896005293 103.705895014383 103.568680691359 103.260325925927 102.568680691359 102.568680691359 107.262659184845 107.08129893612 103.78008309255 100.004280098772 97.569273505137 97.920040003092 98.6231881481506 99.4364290370333 100.107687459838 100.494230123456 101.307471012348 100.051867259261 98.4944737121894 97.1160863581376 95.934297720068 94.6585824402407 94.2426332840303 96.7392469209794 96.4695046502659 91.7136401958249 87 87 87 89.8170375602144 94.1034065192705 95.8356038729205 89.4413846547725 89.973174913574 92.1859528358094 91.6885140860219 87.4905998495303 87.0281254585941 87.4343489323372 87.2403484430474 87.6127246639414 88.8923608312696 90.1542503429545 90.0425424499733 91.672341141254 95.4542290423028
116.716745876547 115.991571647166 115.407404681903 116.156801975312 116.970042864195 117.783283753086 117.403475358023 116.59023446914 115.798682622988 115.097257481482 115.097257481482 113.771132444449 112.620954074074 111.527504987654 110.008682971196 109.274535843004 108.399443383966 108.635097283952 109.131402705321 109.178501031151 109.099407270459 109.174201453198 109.798892641974 109.359277827163 107.710343240037 106.052823703707 105.239582814816 104.361090368704 104 103.702602666669 103.110638222222 103.924212543206 104 103.449305679012 103 102.822823901238 102.009583012347 102 102 102 101.522575012352 100 100 101.970290453944 102.410733037037 102.20799288889 102.914266679971 102.993392869429 103.672819839017 104.515612785877 105.371788246911 106.185029135803 106.998270024694 108.623021827153 107.749829530863 106.476412886869 105.35128456044 104.064807901233 104.878048790124 104.932766906844 104.397878518519 104.220847407408 104.902742518518 104.902742518518 103.323173109453 101.727770922848 99.837664576949 98.5017810615225 100.225130271594 104.29133471605 107.66471006717 109.053863220043 108.481159901234 107 107 109.097428148143 110 110 109.874339311341 109.140192183142 109.022789315427 109.056304445265 109.527926437193 110.380242221876 111.097257481482 111.097257481482 110.389022371895 109.545967802468 108.732726913577 108 108 108.706995753088 107.958859851856 107.301345349414 107.755690666664 106.942449777781 106.977974451177 107 106.59998459259 104.932051358032 100.836406818028 95.8778677239892 94.3129696416238 95.9115889331727 99.4690162691023 103.466842469121 107.533046913577 116.128385461054 119.721169397604 119.404593382722 117.443446066308 114.130514950318 108.758280431112 104.318634666649 100.620630408995 96.822784439042 91.6464169670965 83.3558205568009 81.1443196049361 87.9215798518899 100.43581623819 112.095341029084 113.642729046174 111.622375111119 117.402037147941 123.708370172842 124.16287012344 120.094998518523 112.057588148134 108.177553777767 107.040918455779 107.097257481482 107.144462222225 107.957703111116 107.357684047999 107 107.857761130949 110.240574539976 112.759390967342 110.721792605293 107.760928217115 105.240712837006 104.095068726159 104.987403375742 105 105.61533511111 105.571423999999 105 104.944942222225 104.131701333334 104 104 103.691645234568 103 103 109.65994076187 109.656135506163 105.653386666691 101.338341925931 98.9027425185176 98.9027425185176 99.5259306666682 99.9451885075053 100 100.062910814816 100.876151703707 99.6205479506198 98.4970330864188 97.6837921975276 96.7411026172899 95.1146208395076 95 95.7910591964379 94.0181060902804 89.5684329392584 87 87 87 88.9704555271117 92.5995222829658 95.6064358423244 91.3820438764845 90.9420826078444 92.1312461292256 91.7836853759341 88.7654407901219 87.9521999012307 87.9770261787255 88.9862585497713 89.7842048503399 89.5148882352496 87.998338794188 87.9192450334959 89.8334293333435 92.9076652601729
115.933018638652 114.940026469141 114.343561086421 115.119722868959 115.740655941888 116.546812839507 116.76352908642 116.35376355556 115.094509827167 112.791459545981 113.412392618909 112.357728135321 111.287225679012 109.908900345679 107.688613799357 107.067680726429 107 106.87281653055 106.76352908642 106.76352908642 106.76352908642 106.76352908642 106.76352908642 106.444665162799 105.538281086416 103.955566222225 103.142325333334 103 103.484156444449 103.702602666669 103.110638222222 103.924212543206 104 104 104 103.822823901238 103.009583012347 103 103 102.899388340877 101.865127672622 99.0522868148159 99.8655277037071 102.715074370359 103.624336450095 103.846971654324 105.117979654316 104.304405333333 104.805534081064 104.441452641971 104.371788246911 105.370058271605 106.996540049387 107.811510913576 108 108 107.304787244209 105.285953631201 105.906886704136 106.163469901945 106.117085262266 106 106.126344296295 106.939585185186 106.24684049383 103.868335638628 100.428038615067 97.4273308035337 97.2656382962089 101.139534924708 105.498286647 107.527058172841 107.328983419537 106.780711284876 106.97301910083 108.067631598523 108.405815506684 108.770704322246 109.518047927702 108.083873965876 108 108 108 108.157085947998 108.786994312402 109.79254301725 109.354540641974 109.346666788987 109.496255999997 108.782568299717 108.974876115673 109 108.479429925928 108.333810962963 108.852948148146 108.039707259263 107.226466370372 107.586774518519 107.59998459259 105.982559116237 102.081831870453 97.3946943530621 95.510650674276 95.9331065678992 98.332807680538 102.252450488575 106.510962748987 112.418354870117 116.126331654334 117.426418491817 116.795486457261 114.560971896797 106.659075160474 100.623952251195 96.3905985719629 93.7683251339567 92.5005862501042 86.335265145822 84.2084963482872 90.9633639881862 103.163101335236 113.901763898496 117.347035270017 115.526302814823 119.19415781275 123.708370172842 123.955852774789 118.88202018594 112.409599604927 109.084734705228 107.158554074079 106 106 106 106.159386113493 106.723731753088 108.348594687883 111.166563210356 112.408429356226 111.229883162534 108.698114731567 106.637961876547 105.866169375836 105.245236302901 105.23647091358 105.090962057698 105 105 105 105 105 104.504886123459 104.072916933088 104.265224749045 104.457532565001 111.599919040533 112.019021593979 107.76004212782 102.815715743937 101.000325010295 101.192632826251 101.23647091358 101.23647091358 100.927761312178 100.062910814816 100.876151703707 99.6205479506198 98.6159701319736 98.3860188094428 98.35167751698 96.1042626662629 94.8324420479019 92.6297561387892 90.088233876544 87.9941392229152 86.9934539245856 86.4165304767226 86.741567489669 87 89.4247993951967 96.0849402469123 94.45845846913 91.7596045009943 91.1030028224383 91.0664781175937 90.0991691851838 89.2859282962927 89.2364709135796 91.409373889374 92.6094012839474 91.2810458554647 88.5071028148118 90.1335845925941 91.4556988537511 92
115.146213135804 114.671868530237 114.147548238173 114.340006598529 113.876026045311 114.642218271602 115.199271357423 114.785917077014 113.317147723126 111.408596748983 110.944616195765 110.195871999999 109.382631111107 108.166837003698 106.429467259258 106.429467259258 106.429467259258 105.891627456788 105.429467259258 105.429467259258 105.429467259258 105.429467259258 105.084650005609 105.097199584645 105.231174102894 104.526098962967 103.712858074076 103.570532740742 103.778462081992 103.872277582344 103.554925506654 103.440158253341 103.429467259258 103.429467259258 103.429467259258 103.353375925716 103.004115590048 102.541296635146 102.429467259258 102.003995654316 100.985716364487 99.6228195555582 100.436060444449 102.898347405641 104.561415035881 105.577410891808 106.519644624381 106.170241090545 105.715843738954 105.011985382713 104.942320987654 105.835025832381 106.99752705694 107.811510913576 108 108.250079404556 108.21092593309 107.104090451972 106.640109898749 107.261822419758 107.065668740743 106.570532740742 106.696877037038 107.510117925929 106.817373234572 104.871331555559 102.485163169398 100.408670454671 99.1550775068236 101.01609940272 103.600108338872 104.604374699218 104.584417041329 105.502128197532 106.315369086414 106.030583449301 105.053695625108 105.638214893226 108.369685925768 108.0204255901 107.563154152973 107.429467259258 107.653398965171 107.882620481606 107.478249750615 109.56871208162 109.354540641974 108.740959765957 108.00970612631 107.07725607082 109.282438619379 109.16716851604 108.479429925928 108.333810962963 108.936846044215 108.587585708551 107.796999111114 108.157307259261 107.942295446603 106.267501019561 103.451687399934 99.8494635087011 96.8083921849955 96.2374553848474 97.9595449550885 100.989678222203 105.86912355555 109.927172592129 113.19182122013 116.341973710635 118.821919604942 117.20477392593 109.327198814799 101.366281570024 93.8762812437516 89.3183328461074 91.4441452584453 91.7883059111083 89.1147343552947 93.3375517180207 104.337000249725 116.704923333235 121.235108330914 119.528488296311 121.03138428059 123.506295984756 123.257485432073 117.562465185189 111.075537777765 108.214503111102 106.828057558488 106 106 106 107.058570400358 108.057793580251 109.11984834996 110.36723664709 109.903256093867 109.543037150707 108.409289136249 107.208494617289 106.570532740742 106.570532740742 106.570532740742 105.955197629632 105.570532740742 105.570532740742 105.539120475889 105.075139922666 105 104.787364800422 104.878887506174 105.830876998911 107.572078994248 112.415809676135 113.517577921888 109.928035819207 104.006132148155 101.571907160496 102.385148049387 102.570532740742 102.81952979538 102.499280762517 100.56165819636 100.446937978805 99.4435264891052 99.2869590917082 100.563762154064 102.526555556181 101.364054331622 98.151773390822 94.8630463210017 91.992828444449 89.5254588382097 86.9565239309729 83.1248596046713 85.2836082772166 87 89.7750232352245 97.4622286773551 96.2997274527955 95.1372262282482 94.7115982222268 93.6790392565686 91.4332310123466 90.6199901234554 90.5705327407423 91.6438031351877 92.0388685432052 91.4869767232893 91.7360142289236 92.8985154534831 92.4067187881662 91.7393788408652
114.068620436138 114.044998533235 114 113.843198024688 113.029957135805 112.366697640641 112.248588320079 111.838220575216 110.947120927305 110.059158123453 109.24591723457 109.032258011782 108.092993932422 106.783588888966 106.088723512665 106.824105642528 106.904261135804 105.880073702672 105 105 105 105 104.39562232099 104.417618567901 105 104.955566222225 104.142325333334 104 104 104 103.889361777778 103.075787456794 103 103 103 103 103 102.196008691355 102 101.574528395059 100.761287506176 100.052286814816 100.865527703707 103.036305777769 104.984018962962 106.305250370372 107 107 106.254693530862 105.946525310343 105.939855720285 106.185029135803 106.998270024694 107.811510913576 108 108.438326123459 108.975915259969 108.780849968193 107.23222694943 107.691289679016 107.495136000001 107.287649888133 107.916357195229 107.994215954249 107.24684049383 104.788624950259 102.336456296291 100.709974518509 99.0963250791708 99.1741838381908 100.517951062839 101.647962380972 102.849162431467 105.006956475702 105.084815234721 104.396596148148 103.533934880376 103.745536376655 105.287216592587 105.287216592587 104.521535999992 104.287216592587 104.679712395058 105.081479901226 104.326988645053 106.031329181855 105.737496098757 105.339486929883 105.236039749139 105.344989106662 107.862570532355 108.123790758 107.104437503678 106.827140971867 108.095738864196 108.095738864196 107.322205234568 107.682513382715 107.657426436019 106.359230814819 103.916939415321 101.399357989628 98.2910115555704 96.9489284172964 97.8393825185223 100.560210962945 105.439656296292 108.228468462214 110.746049887907 113.956295412335 117.400957535259 117.977294838944 110.892710928019 101.825659435877 94.7654134697274 92.8075609139324 97.2770635103481 96.0398755276658 90.7090964973592 90.7402852031808 99.600607388053 114.986076474244 120.600903937462 119.666401622874 121.20772627125 123.033909277889 121.772360234412 115.341656347975 110.273951119337 108.334358282131 107.483538172844 106.904261135804 106.904261135804 106.904261135804 107.642810990939 108.487260839508 109.295500246914 109.890925432103 109.077684543212 109 108.45120276543 107.637961876547 107 107 107 106.38466488889 106 106 105.944942222225 105.131701333334 105.616591242294 107.247397844863 109.483065769488 111.350536879846 110.848731027035 111.843080038423 112.191477728392 109.495445643118 104.605721247713 102.90439272119 102.98225148021 103.563524822666 103.946044356112 103.250990222227 100.937089185184 100.123848296293 99.3102739753099 99.5029669135812 101.26483120989 103.870551308645 103.057310419754 101.271023288147 98.4347642469298 94.8723422855222 91.4747609371808 89.6657626972088 85.5216994937765 86.7067584871496 88.3102292843628 91.9336818127837 100.499994781329 98.2159896326958 97.837028795002 97.8085222716084 96.4936067160496 93.6712205432127 92.8579796543215 92.1178625308111 91.9595367184112 92.3158077611901 93.58484994684 96.6186798102957 96.6965385693157 96.0076072148809 94.7471720379808
113.044931160491 112.761677037037 112.761677037037 112.761677037037 112.761677037037 110.598500282655 109.403475358023 108.59023446914 108 107.963419259257 107.150178370374 107.663062518517 107.160907224507 106.523199209877 107.434557234573 109.061039012338 109.065634402919 107.642839743238 106.04189464396 105.199081892554 105.005267914311 105 104.39562232099 104.417618567901 105 104.955566222225 104.142325333334 104 104 104.070876613657 104.238322962963 104.238322962963 104.238322962963 104.238322962963 104.151588845418 104.042225132823 104.236039111066 103.434331654318 102.480183608647 102 101.522575012352 100.052286814816 100.865527703707 102.874539635617 104.862953157431 106.305250370372 107 107 107 107 107 107 107 107.811510913576 108 108.438326123459 109.191612816577 109.582698544383 107.336789855952 107.691289679016 107.495136000001 107.63620977778 109 109 107.49368098766 104.437970465443 101.428199309723 99.375172794136 97.9503733194248 97.5627453629389 97.8078967490097 99.3385374814748 101.778260148148 104 104 102.768336331527 102.628847756574 102.348084148156 101 101 101 101 101 101 101.004522793154 101.198336771397 101.238322962963 101.130116664366 101.598243486724 103.437727571885 105.451837306153 107.297453717743 106.515645432118 105.700127105214 106.644877222802 106.25724926632 105.096087680206 105.655542390387 106.475696825361 106.385400917179 104.925902500355 102.679993811925 99.6250733827288 98.1271326019518 98.8393825185223 101.537959106849 106.223590461953 107.653084158263 108.533091160498 110.814199127078 114.793101568692 117.604223036974 112.059039836588 103.199401858309 97.8304545185203 99.2313078518708 105.979005560218 99.8986913814944 90.8276918518473 85.9259263151233 92.4788274566964 111.713278586313 117.443949784471 117.80530039158 120.573875802208 122.207219387925 119.214941804715 111.698879473098 108.724961158449 108.607482074078 108.57927703704 108 108 108 108.674019950617 109.487260839508 109.704499753086 108.890925432103 108.077684543212 108.735556345679 108.45120276543 108 108 108 108 107.38466488889 106.571423999999 106 106 106 106.681872987658 109.970683259243 114.85012859259 118.421000765007 114.548610298794 111.067729204433 109.304493736962 107.636999111124 105.43024651582 103.998953136035 103.379526225386 104.959367361464 105.127141925934 103.500660148151 101.937089185184 101.123848296293 100.31027397531 100.502966913581 102.114112049095 104.29530728704 102.862639487501 103.517607506175 101.755110014561 98.3067172260245 95.0423363464738 94.3864306060678 90.5520251158146 89.4119606721581 90.7991635806303 95.6149998083992 103.476672322433 100.417522745111 100.167361612251 100.115470335431 99.0921569761425 96.9964416609024 95.563773861363 94.5308352715035 93.6609651358012 94.3170304677813 97.019198024676 101.004070673898 101.19788465214 100.748136358775 99.2151031271505
111.301187313392 111.15907693285 111.427948641975 111.427948641975 111.427948641975 109.861381135803 109.172666731536 108.59023446914 107.872428874733 107.412293963652 107.064268629656 107.283756704344 107.496585256646 108.019891448855 109.284208946877 110.445475169755 109.847452444446 109.341883544957 108.241105147057 106.40739634568 105.594155456789 105.572051358025 104.967673679015 104.750770657021 105 104.980984625143 104.632959291143 104.188253203348 104.276962351543 104.869448691356 105.635342103296 106.100748398469 106.144102716049 105.829077281871 105.208116148145 104.749227456786 105.562468345678 104.76806004938 102.997362513383 102 101.522575012352 100.082197558238 101.360654002021 102.153007552853 103.903977086418 105.907817901256 107.067783085776 107.533189380948 107.572051358025 107.252533583343 107.212681971543 107.572051358025 107.572051358025 107.919336351438 108 108.438326123459 108.856090748956 108.33540628742 107.174140064529 107.295836479346 107.500700915611 107.844316468437 108.50022406825 108.965439623141 107.924526905974 106.196860288022 104.601994460192 103.743948919058 103.84100525512 101.284092367555 99.3590694068254 99.9105888394994 102.350311506173 104.488919781195 103.558488671422 103.528697006264 103.572051358025 102.733670831997 101 101 101 101 101 101 101.029833730795 102.308290174577 102.572051358025 102.118019160492 102.373870617295 104.986223517077 109.169618182424 112.241579214011 112.544858101774 111.47834276075 110.337929158812 108.246231826161 104.05349797394 102.520232123778 103.541535454826 105.458727501957 105.518390123455 103.891908345673 101.332530020598 99.4106569924253 99.091320603465 100.894791111096 104.960995555552 107.691231836082 109.105142518522 111.650043654306 116.552483881466 121.520438460798 115.465060740725 105.645838351121 99.7362342716068 101.010410970266 107.200375974513 98.485561309819 88.9219120987608 84.9242605233164 92.3142784796566 110.659123022857 112.516439913748 119.264296772715 122.720090941038 121.901659919724 117.085861274284 108.484711769278 107.604057052723 108.035430716053 108.488575963642 108.304372679664 107.454952178022 107.920167732914 109.059593978703 109.501835747627 109.301489712605 108.953321686794 108.605296352795 108.886831697254 108.765142968746 108.364946957847 108 108 107.541160910916 107.164616816816 106.571423999999 106 106.031495876546 106.496711431437 107.253924345683 110.542734617268 115.245785188296 118.583176341894 115.795428341221 111.831664197541 108.806160555665 106.088812871109 103.883007836728 104.001572477373 104.932003587156 105.320992132987 104.804750391225 103.643484168334 102.509140543209 101.695899654318 100.487766624246 100.502966913581 101.2706413993 101.80049989228 101.45247455828 102.183879111113 102.266297027504 102.254412099853 102.544422530471 102.923931571042 95.8355986842045 91.9258119701324 93.5872695587503 98.6375136628483 102.287335965624 100.778044408733 101.274298469132 100.466792137137 99.3346402861298 99.0068009876534 98.1935600987623 96.6165357037102 95.5667448888878 95.7018576221938 97.4746426598782 101.026851413515 102.305307857298 102.940202029472 102.491811263376
110.053376546902 110.0499354839 110.094220246913 109.952192192432 109.2155750609 109.040838116589 109 108.59023446914 107.978988280068 107.872645658769 107.136028527237 107.600588604303 108.813509143251 110.123276863411 111.003896888892 111.817137777774 111.181180839508 110.418615349605 108.946757925916 106.984486164081 106.90786240673 106.189184066668 105.39562232099 105 105 105 105 104.936786170697 105.389936197535 105.933800603264 106.210852083829 107.76134555239 107.905779753087 107.355085432098 106.541844543207 106.082955851848 106.89619674074 105.373549395413 103.163307851849 102 101.738795956067 100.962993044505 101.852857690747 102 103.476028444443 105.334011135639 106.320038489735 107.870531958296 108 107.441452641971 107.371788246911 108 108 108 108 108.438326123459 108.748432987658 107.935192098767 107.121951209876 107 107.504863999999 108 108.126344296295 108.939585185186 108.24684049383 106.867199209878 105.964230104487 106.09866192593 106.886833651521 104.370487227496 102.486047362723 102.24759664109 103.684039901235 105.826272683267 104.936408037034 104.244163588793 105.393226133639 106.034711571151 104.370952076123 102.897717813044 101.424483549964 101 101.711029502098 103.184263765177 104.643884664887 105.533749311129 105.132695241319 103.535020965092 102.317638158816 103.817380203009 110.170059799435 114.468365451019 115.856731512172 115.446296791857 114.009790523571 110.096833593859 103.790393245643 101.413225481481 101.875409915731 103.788960725113 105.97064139533 105.080776749087 102.945842567911 100.55007866685 99.2797941728408 100.466842469121 104.533046913577 107.879401086426 110.498817519954 114.203252360628 119.689811890533 124.617432860154 119.268230394825 108.85395188097 101.664813103933 101.16980700328 105.023535648154 98.9477306391591 89.2787040591469 84.9504784337876 91.1490001718845 106.844840171454 110.604549586504 117.755022934007 120.82360493827 119.799177582465 115.707487694216 108.968927606132 109.530967090783 108.674086444149 108.039640621452 107.838212263172 107.047204740743 107.860445629634 109.348039901234 109.512739160492 109 109 109 109 109 108.637961876547 108 108 107.197905777781 107.557358085007 107.865399216545 108.030592348086 108.772397037034 109.585637925926 111.016838993315 113.696874021904 117.632634836627 121.022135651044 116.372561589752 111.582019447783 108.356346020792 105.839999596794 104.093913283949 104.907283671009 105.797148317251 104.812340644891 104.053099795284 103.750330074076 102.937089185184 102.123848296293 100.62054795062 101.41412140717 102.525144880926 101.788527749394 101.051910617854 101.071223955452 101.663725037034 103.899761464828 106.830025408993 106.805147141608 97.9361211212499 92.8214538271603 94.5916009876727 99.7875733333275 101.924234666666 101.110993777775 101.702247111107 100.920454593362 100.234508641976 100.768478024691 99.9552371357996 98.3782127407476 96.8054628957963 96.7443951246346 98.5365043857998 101.034160987653 102.660642765435 103.643562271609 103.543196839509
108.544840412882 108.357284517655 108 107.880805658232 107.262613749259 108.210989346452 109.386589618871 109.18046893828 108.223006419751 108.963419259257 108.150178370374 109.326125037034 110.952606814816 112.068325169234 112.33795871605 113.151199604933 112.34145371819 110.92432039506 109.297838617278 108.125163893989 108.743355802968 107.367632337435 105.791244641981 105 104.769140543208 104 104 105.341831111115 106.484156444449 107.071328246387 107.434582378637 108.866602069812 109 108.449305679012 108 108 108 105.588026074065 103.922376950312 103.137795798166 102.761287506176 101.947713185184 101.134472296293 102.194740253312 103.252167901236 104.065408790127 105.025560069148 106.847837661906 107 107 107.371788246911 108 108 108 108.625085234568 109 108.808769217436 108.239841580245 108.239841580245 108.074041571223 108 108 108 108 108.75315950617 108.003045575681 107.528429098728 108 107.993876938274 107.180636049383 106.518866643651 105.686650104829 105.778260148148 108 108 106.070255345691 107.680455901061 109.674042074078 108.47659040446 105.418675828806 102.544403296444 101.85837418369 103.733571706323 107.047549021404 109.254267547654 109.872459456634 108.86388927636 105.624544194789 102.148306874662 101.887224961723 108.426197042097 114.597307326678 117.050500797162 117.520660505845 117.076444482601 111.968905200151 105.34573017561 101.437893749395 100.40001540741 102.067948641968 106 106 104.040062814825 101.712239025042 100.172735303688 100.466842469121 104.533046913577 108.052051113108 112.438388543231 117.664165925907 122.999434045923 126.848368855882 122.686498025821 112.2508750967 103.724376474274 100.816346325767 101.947269856286 100.710886038327 92.2016824672768 86.3085826345999 89.5883431768339 103.029449698441 109.373372798904 114.232320019359 116.471477207465 116.162366884525 113.924599194434 110.832372343474 112.539132851079 110.715771164306 108.297488794042 107.233963851852 108.035883081128 108.654074990108 109.595836380445 109.512739160492 109 109 109 109 109.54879723457 109.637961876547 108.824720987656 108.011480098765 108.192375545762 109.593091418499 110.867625481471 111.990506913861 113.706319596309 113.511270616397 115.68884361835 118.086117475806 120.960030281994 123.307710024682 116.801782913553 110.834116022871 107.315044740734 105.715022201701 105.382852867768 105.998625580247 105.185384691355 103.903090133941 103.571596787371 103.500660148151 102 102 101.641123934705 104.235782487125 105.859063355501 103.158691420389 101.142111682784 100.425373089136 100.672755441546 104.061965432095 108.804013432097 107.88927051847 98.1303798518783 93.6096325691234 95.274815537397 99.525048888885 101.075765333334 101.889006222225 102.702247111107 101.969024000003 101.32872888889 102 102 100.655620030746 98.5077680987608 97.9273571990504 99.5626296018414 101.798416020038 103.619946777732 103.356437728391 103.456803160491
107.588896085288 107.730414520653 108.197056323855 108.663506880415 109.12995743697 110.713707456786 110.804991326445 109.51900970817 108.095096633081 108.431812513079 108.551472737307 109.899695012341 111.526176790123 112.858446222221 113.727964154273 115.007655599711 113.282333942487 110.880912845923 108.925637985445 107.905558828635 107.439108272076 106.635293234566 105.5643275571 105 104.769140543208 104.025485880821 104.491936437381 105.530584067788 106.761854044336 107.870967308638 108.557290672753 108.437581387343 108.849411171531 108.765167407103 108.364827665963 107.898377109408 107.431926552848 105.936746648851 105.312496415944 104.477630607732 103.197939162295 101.977703332267 101.630912999936 101.473695998115 101.918439506174 102.731680395065 103.849866831132 106.757231597279 107 107.320365994352 107.732111646618 108.106127156853 108.572577713413 108.573569975307 108.840125087319 109 109.144291285057 109.573569975307 109.573569975307 108.882280296291 108.573569975307 108.391114562041 108 108 109.185149185526 109.007169580246 108.573569975307 108.573569975307 108.567446913581 107.75420602469 107.573569975307 106.681211654324 106.054239020818 107.468106157265 107.93455671382 107.002721838284 108.036279926917 109.474391457815 109.235813791642 107.262541681528 106.05495016401 106.631683387235 108.021519693176 109.440608944353 110.562685005075 110.096234448515 109.724756750018 107.8242474603 104.879564117914 102.745237857696 104.479189519353 108.136671544021 111.495470389895 114.663650854536 117.259945252461 116.339234479705 108.445125904888 102.876711111921 100.973585382717 102.519009962034 105.984610763507 105.518160206947 103.841213213819 102.334494387655 101.293775802466 100.98685907973 104.586612967626 109.012135860542 113.772116938293 119.19653998598 124.602379211171 126.909124362017 124.770813195538 116.845535709855 108.310947484617 103.020127029112 102.613356980807 103.546258093927 96.8271148133927 90.6501430744602 92.2807408876328 103.630110313014 104.08437052922 107.770666666659 110.214038518525 109.512259846509 107.038732710786 109.37194172677 112.720259374203 111.751123753074 108.828772967473 106.660393876545 107.426430024693 107.426430024693 108.774469925928 109.21864737287 108.830509930675 108.488991921908 108.955442478468 108.578106964972 108.975227259264 109.272046098769 108.824720987656 108.011480098765 109.262151385451 115.383207108875 119.443565827149 119.598893106176 118.207642635214 116.927951189763 119.448201876552 121.710937679002 121.967886480186 119.306524839496 112.800597728367 109.397052422107 107.385767929728 106.573569975307 106.465662230656 105.999413906151 105.652623573819 105.307823837903 104.896817358619 104.074230123458 102.573569975307 102.573569975307 103.658902138947 108.533368506291 110.742708959805 105.55509730249 101.835683190365 101.573569975307 100.920268278494 103.488395456788 108.23044345679 107.320993135328 98.028553025292 94.8221197562432 96.5833363801419 100.098618864192 101.605878588271 101.952668920603 102.29945925293 101.986790903556 101.52520082283 101.505182173659 101.971632730218 101.674299780604 100.172651608491 98.8656315789028 98.8341092345635 100.477671506172 102.917394172846 103.151995749319 103.194794583008
107.283254123453 108.011019608621 109.251192888891 110.064433777782 110.877674666665 111.763266063983 111.403475358023 109.77070340742 108 108.036580740743 108.849821629626 110.326125037034 111.952606814816 113.284876246914 114.19623427161 115.822716049376 113.826203259263 110.84864079012 108.648919308639 107.835344987655 107.022104098764 106.208863209873 105.39562232099 105 104.769140543208 104.044433777775 104.857674666666 105.670915555558 106.968312888897 108.297397333331 108.889361777778 108.075787456794 108.737453432097 109 108.636064790121 107.822823901238 107.009583012347 106.92573677199 106.351951734134 105.149056790117 103.522575012352 102 102 101.32123140741 101.492009481481 102.305250370372 103.366418601831 105.882289958367 106.768832051506 107.051592012696 107.429815034212 108.185029135803 108.998270024694 109 109 109 109.251567012342 110 110 109.308710320984 109 108.68189511111 108 108 108.822727492208 109.040050813958 109 109 108.993876938274 108.180636049383 108 107.107641679017 106.259420049383 107.072660938274 107.885901827157 107.300857283952 107.560075785594 108.418326123453 108.940311839094 108.051953355138 107.234319407404 108.157842962957 109.39249580247 110.205736691361 110.981022419756 110.167781530865 110 109.049997469229 107.081125009958 104.669109515877 103.192862928225 104.544599352926 108.260072720061 111.549513228352 113.009299651571 116.036910421909 111.888368804334 107.642455312651 104.848974304028 103.89417919783 104.182258099304 104.107140504239 103.378710514116 102.53344671605 101.720205827159 101.45821818964 105.449305039031 109.573374432582 114.198546962986 119.45631441281 124.556347547662 126.907379650423 126.146438055357 121.525540211516 114.459474567925 107.914739254244 105.729302740675 105.879537930805 101.096261800078 98.7981931335004 101.471113686253 107.060596626118 102.481621673031 103.657056546145 104.868014830611 103.277077709621 100.14700972446 103.476455401979 106.083657994102 105.467869407873 104.452270273971 104.84340631205 107 107 108.348039901234 109 108.704499753086 108.109074567897 108.922315456788 108.264443654321 108.54879723457 109 108.824720987656 108.011480098765 109.604188444438 117.384021333319 122.817565207377 123.401661834526 121.655175859308 119.290570787699 119.159565317728 119.81795124548 118.827698962963 114.727799804255 110.436242574605 108.527114769321 107.438348246911 107 106.811866469138 106 106 106 105.563570962967 104.72726851304 103.850531946224 103.112408652397 105.63148659938 111.388423974395 114.238970155829 109.983283753103 105.917079308648 104.944420675634 103.583885827167 105.090076538446 108.533761592681 106.906873108506 98.699346624616 96.2719225679017 98.1523824197651 101.194405156653 102 102 102 102.46787330259 102.57890291358 101.920314115639 101.995431710704 102.693234200401 101.752916148147 100.480954187058 99.8529201987255 100.051241481479 102.490964148153 103 103
108.241360197532 109.173416017997 110.343561086421 111.156801975312 111.970042864195 112.594230231718 112.162115160491 110.727145388828 109.241360197532 109.241360197532 109.241360197532 111.070510852637 112.476303407408 113.569752493828 114.976318428721 114.780034447139 113.309441975311 111.274933516023 109.297838617278 107.875086153959 107.258129246652 106.450223407405 106.095487481542 106 105.769140543208 105 105 105 105.968312888897 107.594794666663 108.916065440948 108.298855578783 108.800821723587 109.550694320988 108.908194370362 107.177176098762 107.990416987653 108 106.7755385679 105.149056790117 103.522575012352 102.052286814816 102.865527703707 102.32123140741 102 102 102.355473777789 104.79619674074 105.745306469138 106 106.371788246911 107.370058271605 108.996540049387 109 109 109 109 109 109 109 109 109 108.873655703705 108.060414814814 108 108 108.379641283952 108.807117827157 107.993876938274 107.180636049383 107 106.553820839508 106.259420049383 107.072660938274 107.885901827157 108 107.48728296296 107 107 107 107.765680592596 108.578921481478 109.39249580247 110.361816734256 111.739662222224 110.926421333333 110.758639802468 109.960160708286 108.529962912087 107.019251140597 104.775812455507 103.605084007355 106.257126236499 107.941021397899 106.823495229458 112.712465433218 115.507301118528 113.590735632329 109.930923367458 106.121859496528 101.993524156912 101.797240175329 102.569635806248 102.066893432101 101.212262996016 102.180411395364 105.854047876653 110.048913969186 113.649644246927 117.941603950599 123.073027531555 125.889060650596 127.562773333337 126.216117333321 121.118201972212 114.154063802458 109.404981832772 107.582216073407 104.756277488427 106.934462552952 111.046287012341 110.819717039872 103.276160095711 101.40373985779 100.45905580247 97.9603756638957 94.5819982575748 96.2372633852484 96.6867641739033 95.7248568575831 97.45735121019 102.075957394596 106.345910839248 107.551719691306 108.595341341507 108.512739160492 108 108 108 107.264443654321 107.54879723457 108.362038123453 109 109 110.797782064351 117.861529015775 123.817745188022 125.94117833657 124.724711111126 120.65850666667 117.272508049368 115.385385340417 113.599645307836 110.756808691354 109.130326913572 108.251922567903 108 108 107.811866469138 106.998625580247 106.185384691355 105.376811851849 105 105.180781147916 105.613443129654 104.183245333455 107.770852119143 113.766630230067 117.204016547914 115.027413153074 112.167017560677 109.697649382714 108.395936000005 109.219284788102 110.261427358016 106.176767999972 100.484081777794 97.9699417283957 99.3777521243471 102.262524444442 103 103 103 103.515487999999 103.67127111111 103.033139172287 103.229423153871 104.005143703701 103.66400237037 102.850761481479 102.086719359908 101.495678337526 102.112635244833 103.37315442375 104
109.738412685909 110.105408790119 110.721290495158 111.066574665203 111.411858835244 111.42457797531 110.828053333333 110.486388667281 110.57542202469 110.57542202469 110.57542202469 111.520006284823 112.750378878465 113.817326384947 114.326460839505 113.513219950622 111.975380148152 110.34889837037 108.722416592588 107.614070216467 108.54998365416 107.784285234563 106.97104434568 106.3351151028 105.901982159254 105.549853850318 105.081897131472 105.386059587375 106.265140632056 107.765923642345 109.57542202469 109.57542202469 109.57542202469 109.80923470451 109.117610705687 107.548696064499 107.426023515698 107.887212281964 106.7755385679 105.149056790117 103.659935438867 102.59762185466 102.942906024705 102.711809805254 102.29230893269 102 102.287291297476 104.25986567741 105.169884444448 105.745978426952 106.371788246911 107.370058271605 108.996540049387 109.466961252948 109.57542202469 109.323199519254 109 109 109 108.602216693254 108.42457797531 108.607622534539 108.946356994487 108.601072824442 108.142037456735 108 108.161187327685 108.342684452891 107.99740028285 107.652116112805 107.211215402937 106.553820839508 106.259420049383 107.072660938274 107.885901827157 108 107.48728296296 107 107 107 107.765680592596 108.24579731047 108.81707377778 109.511929243175 109.841098488024 109.495814317979 109.42457797531 109.493066030535 109.308148938267 108.460723588764 107.302198529828 105.330031615514 104.118824742757 103.748665298621 105.194804514109 112.636645062853 116.984351093164 116.728163475306 113.09599595397 107.500592977123 101.397747358025 100.584506469134 102.107133106547 102.066893432101 100.839000270568 100.597230881265 102.101040110246 106.592835555569 110.40609856792 114.897345360661 120.830664208429 125.804069646794 128.012400431137 126.791539358011 122.781867441368 117.397609481465 112.602257372529 109.694577987009 107.167347753082 107.703924117082 109.546706645281 109.373585627496 105.552726280644 102.548997612234 100.411935416386 98.061264342292 95.0226336745788 92.3364650215313 90.5654449989989 89.5154078024723 91.226504691352 95.8952647928475 101.921414065948 105.76500688916 107.772617876544 108.217697754624 108.170037350375 108.512658115989 108.044701397142 107.687698976025 107.492639227539 107.786616098763 108.626296783648 109.56221022134 111.981704691346 118.374695760292 124.38949206966 126.952641483095 124.693029653164 120.158868489861 117.481815494957 115.015395413027 112.499513679015 110.251355484268 109.092830425332 108.682382798505 108.252235235757 108 107.920122646379 107.573256733539 106.292059125802 105.376811851849 105.251130880123 106.611762951022 109.69955552769 109.354271357646 111.266825106303 115.382194204684 118.441167156139 118.040921922816 117.350353582726 115.468875732424 113.979899733927 113.023712897097 111.595489185175 107.516139509002 102.291410005665 99.8794255802441 100.688308754191 102.837946469132 103.531824983182 103.063868264335 103 103.515487999999 103.860428953929 103.712723753086 104.525964641977 105.778703382404 105.241261812343 104.40958241267 104.15084404938 104.15084404938 104.15084404938 104.424086415645 104.312567425195
111.187736493824 111.4344691358 111.904482370371 111.762657748062 111.027095701202 111 110.403475358023 110.780391229509 111.702776995227 111.033086635097 111.768648681956 111.967816530436 112.952606814816 113.742334456929 112.997400493824 112.184159604941 111.301706745393 109.92432039506 108.615384913191 108.084864839201 108.975784570117 108.208863209873 107.39562232099 106.960110064305 106.695674061669 105.955566222225 105.142325333334 105.670915555558 106.484156444449 107.623201355 109.195587951118 109.931451581434 110 110 109.272129580241 107.822823901238 107.009583012347 107.803991308645 106.7755385679 105.149056790117 103.761287506176 103 103 103 102.507990518519 102 102.236982518526 103.864131160493 104.745306469138 105.558547358029 106.371788246911 107.370058271605 108.996540049387 109.811510913576 110 109.561673876541 109 109 109 108.308710320984 108 108.31810488889 109 109 108.24684049383 108 108 108 108 108 107.367061728391 106.9573820242 106.929261558566 107.072660938274 107.885901827157 108 107.48728296296 107 107 107 107.765680592596 108 108.037490268691 108.095517629629 108.112682516392 108.848244563259 109 109.043368079284 109.06998833795 108.992309495927 108.914630653903 107.422960305702 105.247254518527 103.840849572668 104.842977658782 110.033138360172 115.627402197541 117.60966784437 115.466181402379 109.693469041376 101.853383932766 100.304580997008 101.959937185175 102.066893432101 100.720205827159 100.093368493824 100.906609382715 105.319101629639 109.13236464199 113.457405162083 119.356859106984 125.74820886202 127.637409535561 126.31163496295 123.017216780404 118.671343407395 113.861265382733 110.608301827168 108.016503703703 107.090628334524 107.971550749907 109.692370867946 107.988210248139 105.556346319712 103.090614518524 100.971246018366 98.9322334479357 95.6002254733348 92.4213111464714 91.5599042337261 92.4844171582333 95.0458270176429 99.3787460740852 104.258191407432 107.053196693475 108 108.295500246914 108.989581455822 108.911902613797 108.904482370371 108.355685135801 108.59397759389 110.159522765431 111.786004543213 113.489767324025 117.216259330884 121.470369452528 123.656619851839 121.151321430565 117.743000190952 115.827289283942 113.210579753096 110.823773861269 109.878404345677 109.065163456786 109 108.438348246911 108 108 107.997251160493 106.370769382711 105.940474545276 106.735653777319 109.283136416775 113.656545388207 112.92098334134 113.564571760404 116.01243443943 118.095517629629 118.212601688827 118.948163735694 118.171864844286 116.250365747624 114.234508641976 112.374599951481 109.778638215958 107.10587902324 104.101017792022 102.842095065956 103.262524444442 103.924234666666 103.110993777775 103 103.981737808135 104.607152885739 104.137301728396 104.950542617287 106.527567012339 105.845284345677 105 105 105 105 105 104.543196839509
113.521464888886 113.111962212371 113 112.686396049375 111.05991427161 111.186586622374 111.238210765433 111.960131266399 112.776993580249 112.036580740743 112.849821629626 113 113.476303407408 113.362386917341 111.663672098762 110.850431209879 110.209797582824 109.46216019753 109 109 109 108.208863209873 108 108 107.769140543208 106.955566222225 106.142325333334 106.670915555558 107.484156444449 107.929156753589 107.898782672391 108.906159155113 109 109 108.636064790121 108 108 107.196008691355 106.38776928395 105.149056790117 103.761287506176 103.052286814816 103.865527703707 103.32123140741 102.507990518519 102.305250370372 103 103 103.745306469138 105.117094716058 106.371788246911 107.370058271605 108.996540049387 109.618200277696 109.285606032186 108.561673876541 108 108 108 107.308710320984 107.504863999999 108 108 108 108 108 108 108 108 108 108 108 107.802376599149 107.293563085984 107.913081240244 108.699142716048 107.974565925921 107 107 107 107.765680592596 108 107.60750419753 107 107.018977580244 107.832218469135 108 108 108 108.241541925918 110.681264592592 109.754422493324 108.197070617289 106.570588839507 105.350233283099 105.969751437359 111.635476923017 116.638568317875 117.590514323128 113.330452009294 105.348772740744 102.90905007407 102.957759154246 102.660519466598 101.720205827159 101.093368493824 101.906609382715 104.879401086426 108.13236464199 112.077992296281 117.557717390946 125.450835030999 126.357041185269 124.570008302367 121.606736987664 118.352439703696 115.056530474006 110.796603294926 108.016503703703 106.277204743718 107.133784128065 111.238210765433 111.238210765433 109.228447601676 107.652250598507 106.51428727477 105.132589030898 102.304261744471 97.8511572556366 97.0326968306709 97.137990026391 97 97.2719837670318 101.957706365755 105.61842784539 107.487260839508 108.295500246914 109.083091831589 109.702609985856 110.112224114814 110.081601758806 110.952716053587 113.115209290247 114.973763753048 115.611026743595 115.615209786752 117.033699635125 118.079889382699 114.950156738105 113.517397694947 112.765924202361 110.779005873986 109 109 109 108.251922567903 107.438348246911 107 107.04481543239 107.238865568596 107.626311037844 107.714632296299 108.815995217461 112.057147980348 117.349832058039 115.103832125989 114.268888741726 114.550123851849 115.047156938268 115.404666940481 117.650666872531 117.628875397168 116.269207552957 114.210255693472 112.523107641221 112.712434216753 112.518711482131 108.965031690177 105.050097815345 102.789548294175 103.075765333334 103.889006222225 103.83271717814 104.792765234564 105.51136710592 105 105 105.58184205254 105.321964257342 105 104.796160395065 104 104 103.846696538676 103.761789234567
114.855193283948 113.738832209372 113 112.776077239499 111.614719773002 112.355222913581 112.571939160495 112.981704691355 113.348932740744 112.608519901238 113.421760790121 113.192707740299 113.203886836434 112.573432098763 110.3299437037 109.516702814817 109.428060839505 109.197832682141 109.200796795883 109.571939160495 109.571939160495 108.780802370368 108.571939160495 108.571939160495 108.341079703703 107.52750538272 106.714264493829 107.242854716052 107.502279544171 107.130663506174 106.64933728395 108.276485925917 108.849839336363 109 108.844213588534 108.470605211309 108.005480900037 107.655842805467 106.609549722678 105.149056790117 103.761287506176 103.052286814816 103.865527703707 103.32123140741 102.789390008313 102.702604890296 102.932230208651 102.466915194508 103.173367308643 104.86461066261 106.371788246911 107.264232863007 108.425590329517 108.428060839505 108.428060839505 108.491126466194 108.571939160495 108.53487298387 108.069748672598 107.308710320984 107.504863999999 108 108 108 107.569238584322 107.428060839505 107.428060839505 107.538377707516 108 108 107.637997816291 107.938435508469 108.571939160495 108.530381524458 108.06525721319 109.09900981413 108.546505086416 107.385511057986 107 107 107.765680592596 107.668892133891 107.48453247656 107.571939160495 107.569208698113 107.452200964459 107.797224322868 108 108 108.287591021363 111.192437999309 111.269301964901 109.805003761703 107.904317234569 106.487834447796 106.022710136529 108.098011449163 114.413237482737 118.543167929882 117.709330702521 113.907736790885 111.002889812939 106.977078006711 103.943931659542 102.292144987654 101.665307654319 102.47854854321 105.039629686896 108.437260352793 112.649931456776 117.73429756788 123.624089710355 123.85612167901 124.281766478252 122.940465382726 119.686168098758 116.344000294461 110.999430649841 108.394650105886 107.843270713456 109.417597666621 112.629831717882 113.094956029154 111.688471703713 111.762652661409 111.37681414815 108.782930133159 104.249743514099 101.421171216929 99.4134498324795 97.910588259298 96.8661869109859 96.6370863034268 100.23816643661 104.997218241522 107.765944394999 108.529423081117 108.428060839505 108.428060839505 110.740560488553 113.925048148125 116.376708268986 116.987009848462 115.591636914644 114.195691872214 113.2407865679 113.223034883715 112.744975802451 109.688675279445 109.340558701826 109.284182518515 108.86030479523 108.428060839505 108.497606155958 108.962730467231 108.251922567903 107.438348246911 107 107.403335398267 109.147413244977 111.239019334032 111.715817481485 111.902635661462 112.678247911442 114.194342047496 113.032984580986 109.997980957874 108.927543797291 109.140304197525 109.325164804375 110.486522270884 109.812434567893 110.219809220149 112.408432491055 115.564049675122 117.267974097401 115.524484585983 113.691802400531 110.101400871749 105.740324561508 103.075765333334 103.889006222225 102.896110265706 103.164209065538 104.232147528494 104.921471764727 104.456347453454 104.428060839505 104.428060839505 104.428060839505 104.340805087092 103.9902309967 103.525106685428 102.784498567896 102.428060839505
115.283254123453 113.940026469141 113 112.843198024688 112.029957135805 112.783283753086 113 113.40976553086 113.776993580249 113.036580740743 113.849821629626 113.336937481483 113 112.145371259258 109.901882864195 109.088641975312 109 109.487283392237 110.257081679015 111.05517859146 111.791975639995 110.304094471956 109.358434213555 109 108.769140543208 107.955566222225 107.142325333334 107.670915555558 107.515843555551 106.702602666669 106.221276444445 107.848425086412 108.737453432097 109 109 108.822823901238 108.009583012347 108 106.7755385679 105.149056790117 103.761287506176 103.052286814816 103.865527703707 103.32123140741 103 103 102.881508740737 102.067934419753 102.745306469138 104.675642074086 106.371788246911 107.185029135803 107.998270024694 108 108 108.438326123459 109 108.935192098767 108.121951209876 107.308710320984 107.504863999999 108 108 108 107.24684049383 107 107 107.192882172843 108 108 107.367061728391 107.892358320983 109 108.927339061726 108.114098172843 109.398285432095 108.974565925921 107.674042074078 107 107 107.765680592596 107.421078518522 107.39249580247 108 107.981022419756 107.167781530865 107.645459358026 108 108.242149680273 109.15511114773 111.67127765476 112.640538850565 112.287564767942 110.7479479749 108.531721000437 106.981683063026 106.978712384855 111.328046530477 116.263269926777 118.646742332043 116.94129466238 115.161925203886 110.238815209897 105.566946651355 102.973699624093 102.914777533857 102.991221374213 105.159550814819 108.665455802488 113.077992296281 117.957437629628 122.808874666664 123 124.189255111119 124.477113862723 123.634741357992 123.036374483222 115.870094163913 111.410624470616 109.426783105565 109.629371527011 111.472633169429 113.759468155391 112.544593382723 114.062080349514 114.749446716044 111.655758024443 106.037212960202 104.242860730308 101.439176393977 98.3022042217914 95.8600351604951 95.3255855170523 99.3153461211523 105.328802395278 108.439063864831 108.972223268642 109.103644320138 110.577238417209 113.660228345677 118.010786370383 121.080041086413 121.033362967629 117.85684325242 113.952322993608 111.827170670487 111.093999012347 110.345817796945 108 108 108 108 108 108.121595654323 108.934836543214 108.251922567903 107.438348246911 107 107.393951427815 109.099367497261 112.27588721247 113 113 113 112.937089185184 112.123848296293 108.551369876549 107 107 107.129448691355 107.942689580246 107.244069530863 109.170953384887 113.144453765185 117.493960691362 119.869958532302 116.693438817126 115.364290765432 111.857349135786 106.687377777788 103.075765333334 103.889006222225 102.595505777785 102.515487999999 103.359629079775 104.081092785484 104.004648945128 104 104 104 103.815321116606 103.07691851852 102.263677629629 102.033504794432 102
115.544920829998 114.82735048655 114 113.843198024688 113.029957135805 113 113 113 113 113.036580740743 113.849821629626 113.336937481483 112.523696592592 111.498540712995 110.239729382715 110.239729382715 110.413437032984 110.888362564055 111.941890765438 113.36491175059 113.983194903188 111.626589629619 110.39562232099 110 109.769140543208 108.955566222225 108.142325333334 107.329084444442 106.515843555551 106 106.110638222222 106.924212543206 107.737453432097 108 108.363935209879 109 109 108.196008691355 106.7755385679 105.574528395059 104.761287506176 103.947713185184 103.134472296293 103.67876859259 103.015981037038 102.305250370372 103 103 103 104.675642074086 106.743576493823 107.814970864197 107.001729975306 107 107 107.543405774464 108.430988390477 108.935192098767 108.121951209876 107.308710320984 108.009727999998 108.68189511111 107.873655703705 107.060414814814 107 107.566400395061 107.620358716048 107.192882172843 108 108 108 108 108 108 108 108.699142716048 108.48728296296 108 107.860801185187 107.047560296295 107.765680592596 108 108.39249580247 108.794263308639 107.985571903353 107.367288750755 107.730453167274 108.108844858447 108.710202343537 110.199631081812 112.21602833218 114.430958369226 115.510707571753 114.171240098565 110.558844444438 108.11912177779 108 109.03288194392 112.080901235681 116.082435834555 117.986033557354 117.562708141049 113.872820749455 108.916737604744 105.103001874579 104.101594546112 102.898438184636 104.372540421757 108.198546962986 113.424324345662 118.721356047377 122.376542909517 122.113797254426 123.783882666679 125.717958838469 127.699128016486 130.70305160307 123.740389131914 116.832051277679 112.080782029941 109.712352790127 109.404886123459 112.657849679024 113.523355594939 116.70549289621 117.822989037032 114.148021406955 108.843076499596 107.353738115804 103.209476252904 98.2186485013805 94.3730482767302 93.534274190531 98.6086772601706 106.219658271603 109.733098124386 110.070840091785 110.754472790799 114.592309555242 118.636699259258 122.176652414596 124.550493895197 124.468867160504 119.589421827157 114.09816723181 111.061779190304 109.571423999999 108.758183111108 108 108 108 108 108.308354765432 108.878404345677 108.065163456786 107.251922567903 107 106.714980139673 106.570895309218 108.006213121169 111.68250209304 112.371144724498 112.385436715501 112.830064377718 113.649530558455 112.218006516966 108.551369876549 107 107 107 107 106.244069530863 109.713479467267 114.908770694007 119.348230320994 121.709330061562 117.219800200848 115.934933017937 112.509993217104 107.071264213942 103.075765333334 103.889006222225 102.061607933137 101.631639762677 102 102.137301728396 102.950542617287 103 103.43894819165 103.463309890321 102.796160395065 101.982919506174 101.169678617283 101 101
114.426208790122 114.200323772048 114 113.843198024688 113.029957135805 113 112.657719403958 112.896448509559 113.445832086478 113.015591033254 113.362201448582 112.763146271605 111.949905382714 111.468251515973 111.630089959941 112.096720433496 112.872181333335 113.147582419756 113.849743802478 114.864149623519 113.464258202842 111.052798419741 109.821831111112 109.426208790122 109.19534933333 108.407270723456 108.060660308124 107.714049892792 107.089634765429 106.573791209878 106.620946192713 106.967698719733 107.737453432097 108 108.363935209879 109.10166208807 109.568292561629 108.308476755514 107.126831171187 105.904187737969 104.761287506176 103.977714899918 103.631104484586 103.473616898529 103.006811258461 102.87904158025 103.505801966865 103.038980172903 103 104.996131638424 107.317367703701 108.388762074075 107.575521185184 107.108153380948 107.35866841302 108.450443456797 109.429444269501 108.935192098767 108.121951209876 107.705366262283 108.293832684493 108.864420900174 108.447446913583 107.634206024692 106.709478601325 106.992609185183 107.264402337808 107.303556268163 108.573791209878 108.573791209878 108.210616793233 108 108 108 108 108.297980771129 108.20768428209 108 107.940672241552 107.59406182622 107.460790215263 107.758388847404 108.167285161099 108.456571908866 108.584680378607 109.051310852166 108.777223513787 109.02782340741 109.841064296301 110.988243533708 115.174468036391 116.729697187268 115.7309167478 113.09096493827 110.15380735454 108.647345635001 107.686097615427 107.676297247734 107.734347096713 109.910272200194 118.616016999516 119.895888361966 118.2840626587 115.497806766304 111.241059210309 105.186537686334 101.813554072542 103.998803363217 108.504429984943 113.600670984273 117.721804506307 119.219619049116 120.956718638735 123.892475585864 125.513596997905 126.66048452959 130.980672438573 130.527491724363 123.451722025063 115.187060917984 109.877402230698 109.920597308677 112.706930390682 116.8533089735 119.838163578477 119.527613784814 115.928796439196 112.794568422205 108.632951667721 102.624280942805 99.3710755909433 98.1905340790925 94.9583957256824 101.584342895039 109.461573135806 111.67494081687 110.869291456792 112.587657298279 120.146865414754 124.124682012266 124.584381957275 123.376797121366 121.32752585286 116.914710993072 112.500086861134 110.548612445786 109.817337141564 109.331974320986 108.573791209878 108.573791209878 108.573791209878 108.28969921963 108.308354765432 108.878404345677 108.065163456786 107.681162822749 107.573791209878 107.788901312489 108.227766584326 108.574759949246 109.147960721683 108.655438222215 108.715055407399 109.921224631081 111.825604437976 111.478994022644 107.977578666671 106.426208790122 106.426208790122 106.426208790122 106.426208790122 105.670278320985 107.946955898171 112.751253439563 117.901713123914 119.831391653861 117.978319518994 115.208079628242 110.260816592571 105.254222458272 103.606083060931 103.952693476263 102.998448997301 102.278008726681 102 102.058519203541 102.405129618873 102.426208790122 102.426208790122 102.426208790122 102.339330558724 101.992720143392 101.64610972806 101.573791209878 101.311681571744
114 114 114 113.843198024688 113.029957135805 113 112.403475358023 112.81953106172 113.776993580249 113 113 112.336937481483 111.523696592592 111.284876246914 112.098117135805 112.911358024688 113.724598913579 114 114.383548772396 114.747943009781 113.046252393315 111.344561776849 110.30314192593 109.528522567183 108.769140543208 108 108 108 107.515843555551 107 107 107 107.737453432097 108 108.363935209879 109.177176098762 109.990416987653 108.39201738271 107.38776928395 106.149056790117 104.761287506176 104 104 103.32123140741 103 103.305250370372 103.881508740737 103.067934419753 103 105.234189432115 107.743576493823 108.647053295971 107.095780356873 107.017431545177 107.625085234568 108.876652246919 109.748432987658 108.935192098767 108.121951209876 108 108.504863999999 109 108.873655703705 108.060414814814 106.49368098766 106.566400395061 107.344531908031 108.118239597328 109 109 108.367061728391 108.404916335462 108.672090824211 108 108 108 108 108 108 108 107.234319407404 107.578921481478 108 108.205736691361 109.03620010637 110.587473045468 110.262060246914 109.949508681938 110.267273086423 111.410015840775 115.551429123914 117.441088654685 115.445292155748 112.363116529674 110.760467753086 109.947226864203 108.360452345684 107.90751960494 107.10748879012 108.316265204657 117.311669958285 121.15224788669 120.008001008157 117.600340148151 113.709895665994 107.517664218017 104.927523873977 104.896366569769 108.247847444111 112.824140641961 116.252053333331 117.060626172837 118.727516676025 123.237370896535 125.592131555558 125.725765639594 128.441236782604 132.281814711009 126.327200838648 117.214643753056 111.429610569472 113.026223407414 115.465946074088 118.835266917783 121.08188839506 120.871934387304 118.464703638916 116.762315322333 116.281848383346 112.354243453385 109.96805251093 107.609779026277 99.6625660976932 101.815509746261 107.701787657681 110.676934120009 111.027327979575 112.094326024394 119.563911701781 122.552134763656 121.225485627019 118.70484429971 116.811664798593 114.221524454552 111.630322142371 110.38466488889 110 109.977636678583 109.857553592205 109.119521541997 109 108.954211673098 109.215874370372 109.785923950617 108.972683061726 108.228624669299 108 108.374892641971 109 108.998625580247 108.185384691355 107.376811851849 107.436429037033 108.069268720152 108.334533982988 109.072566033196 106.988210445557 106 106 106 106 105.244069530863 106.244345636199 108.857529392578 112.124717158843 114.469922714395 115.132745925912 113.252732199164 108.908310446067 104.737475555558 104.068758525375 104.806790575583 104.205272493833 103.392031604941 102.90751960494 102.782915594629 102.044883544421 102 102 102 102 102 102 102 101.543196839509
114 113.470013234571 113.343561086421 114 114 113.216716246914 113 113 113 113 113 112.336937481483 111.523696592592 111 111.294351407415 113.734074074063 114.724598913579 114.46216019753 114 113.835344987655 113.022104098764 113 111.937251067204 110.723073972493 109.769140543208 109 109 108.329084444442 107.515843555551 107.297397333331 107.889361777778 107.075787456794 107.737453432097 108 108 108.177176098762 108.990416987653 107.39201738271 106.38776928395 105.574528395059 104.761287506176 104 104 104 104 103.694749629628 102.881508740737 102.067934419753 102.745306469138 104.540707403439 106.963600445762 108.304583060397 105.248083403411 105.85704637701 106.776094220719 108.012342226386 109 109 109 109 109.504863999999 109.68189511111 109.030522436036 109.226986334616 107.735262419759 107.671150008579 108.379641283952 109 109 109 109 109.446179160492 109.740579950617 108.927339061726 108.114098172843 107.300857283952 107.51271703704 108 108 108 108 108.578921481478 108.702323895583 108.603352650287 110.037955160488 111.66443693827 112.155930996073 111.677863486067 110.732726913577 110.283154538308 113.143190296714 115.808621441587 113.886518251475 111.494749864579 111.852948148146 111.039707259263 109.452932740744 109.141753828503 108.744929729705 109.178339745428 113.732385575575 120.265697981278 119.906230510246 117.039039683319 113.977207261377 111.802144835196 110.372126955993 107.502408533577 107.937928604621 111.235906335909 115.159572938271 115.968145777777 116.781386666669 121.61336946804 124.856952010818 124.893007079197 124.751243789141 130.2474661128 126.624833414673 119.596150693312 115.103959547508 116.955049161733 118.805380132669 120.279607009834 121.709624889037 121.808466962961 120.435943122031 120.042854222867 124.196754120489 124.039835039191 121.993580082543 116.878840570711 105.497997701186 101.011480164998 104.285701135802 108.190624790132 110.241581432098 110.790627278208 114.884217017238 116.746368395064 115.345225209141 113.121804009333 111.824720987656 111.011480098765 111 110.533318426252 110.241581432098 110.483398320991 111.17322271752 110.16351793005 110.164727852868 110.121971112752 110.233861979604 110.729043315593 110.532579417014 109.201403888976 108.894103202753 109 108.811866469138 108 108 108 107.563570962967 106.500660148151 105.062910814816 105.876151703707 105.31027397531 105 105.23981786871 105.758418567902 105.758418567902 105.185106864065 104.430495209879 104.382745679012 105.540612987963 107.793099212851 110.849598869805 110.245418666667 107.48900254604 105 105.075765333334 105.889006222225 106.169649862788 105.850625761369 105.233848771057 104.554273019724 103.544568232254 102.534863444794 101.803702535656 101.483162864197 101.433919000518 101.266914586244 102.473083272293 102.569271601075 102.593518025895
113.750607934452 112.89470340741 112.768251259261 113.42469017284 113.42469017284 112.641406419753 112.42469017284 112.660432309575 113.128297784803 113.533219307892 112.597488357446 111.761627654323 111.222408796423 111.163892104374 111.813213482134 113.785070673559 114.724598913579 114.46216019753 113.798019828134 113.260035160495 112.446794271604 112.879838942828 113.091031157092 112.075122452401 110.344450370368 109.57530982716 109.57530982716 108.518409959296 107.794383515926 107.872707160492 108.464671604938 107.651097283954 107.888499052699 108 108.209375502693 108.548623624411 108.426133562847 107.279251656365 106.035546936517 105.243996563399 104.898621149739 104.545228708766 104.077363233538 103.609497758315 103.990805952344 104.094445918969 102.881508740737 102.067934419753 102.316524333197 103.220447104889 105.550426765396 108.188950005847 107.152823764856 106.683749450892 107.825480296297 108.761462624292 109 109 109 109 109.504863999999 109.864903979756 109.701654123456 110.514895012347 109.502290880139 108.498908227548 108.161229922499 108.42469017284 108.428212830423 108.896078305651 109 109.189487904787 109.165270123457 108.393831786405 108.048456372746 107.703080959082 107.793055714239 108.187526798024 108.495227381069 108.027361905841 108 108.578921481478 109.22580669228 109.781046518522 110.613264987648 112.239746765431 113.220769185187 112.667245432096 111.000507074427 109.539397642235 110.698013944789 114.084104962545 113.941388035231 112.383265099754 111.852948148146 111.039707259263 109.897954239508 110.162084345679 109.77527901234 108.938147661833 110.361915851565 113.024523870337 113.270685683063 113.2639950529 114.670294368985 117.783180641977 116.969939753086 115.131135256321 112.691997468838 112.483783438284 115.251376817808 116.525129557856 117.356696493829 121.053512563651 123.832558617282 123.727008243755 121.48217244442 126.361617777767 126.531283642449 124.668834821042 122.365223723742 120.551228257201 119.147631831518 118.890393579205 119.390324543209 118.937244011986 116.746574950057 114.183311704116 119.802767493265 123.279514220759 121.082787828985 113.50174385079 104.317343263582 102.467976133701 105.806969056732 109.804679134553 111.980615458343 111.542452279737 111.297472156608 112.322010415778 112.548351548718 112.270936139616 111.824720987656 111.011480098765 111 111.354008336418 111.821873811646 112.25331691066 112.465194271611 110.838712493828 111.649471045493 111.370661899043 110.220510773551 109.233139343645 107.952032979526 107.531679211745 107.986341925928 108.640369593896 108.811866469138 108 108 107.641473734199 106.988261135806 106.068987882922 105.062910814816 105.876151703707 105.707080135362 105.285948019041 104.818082543813 104.42469017284 104.42469017284 104.42469017284 104.18282708509 104.382745679012 105.166467138794 105.871754069489 107.843611260914 107.368381819247 106.277386229095 105.424276934403 105.119353874159 106.400460238277 107.681566602383 108.447184966503 108.915050441731 108.868653784585 106.306441056348 104.623052641982 104.150619654321 104.150619654321 103.946780049385 103.221514287702 106.596967904831 105.91718163854 105.87022616212
113.566508246907 112.470013234571 112.343561086421 113 113 112.216716246914 112 112.40976553086 113.020285060396 113.017800296292 111.391318518526 111.030648432316 111 111.284876246914 112.19623427161 113.822716049376 114.724598913579 113.973243259652 113.059026853948 112.835344987655 112.022104098764 112.791136790127 113.60437767901 112.747144296298 110.769140543208 110 110 109.26805677277 108.468921508683 108.297397333331 108.889361777778 108.075787456794 108 108 108.033104193687 107.913785679016 107.100544790125 106.286970469133 105.423041467385 105 105 104.947713185184 104.134472296293 103.938258002118 104.445801760822 104.389499259256 102.881508740737 102.067934419753 102 102.558547358029 104.520971507542 107.259160334447 107.998427386323 107.188489086424 108.250170469137 109 109 109 109 109 109.504863999999 110 110.011492501803 110.085466338818 109.337802271608 107.958160987656 107.436070215624 108 108.006123061726 108.819363950617 109 109 108.740579950617 108 108 108 108 108.325957925922 108.860801185187 108.047560296295 108 108.578921481478 109.39249580247 110.205736691361 111.037955160488 112.66443693827 113.058712130689 112.59563000439 111.44114219206 109.916361916552 109.990335753567 112.892292602936 113.523039724311 112.666189037037 111.98662390213 111.912650065116 111.135504592594 110.962412275581 110.19996918518 108.805838773016 108.12023295571 109.007447681616 108.588037617396 109.630106669046 112.377451973039 115.700942513615 117.844769832228 119.268746879234 116.577058623358 114.542243522118 116.228184098765 117.845329777777 118.690424888891 121.34163682403 123.407868444442 123.718128751706 122.840630290187 125.502274467906 127.262190081089 127.865885379876 126.667487604953 123.606426092318 121.905970477521 120.999411358028 120.776319912553 118.467650059991 113.207826432404 108.474388839686 116.1617677826 120.667109501293 117.683202449432 109.428290992598 103.301222518666 106.923583941031 110.302580966546 112.743640904515 113.344916956188 111.781850864206 110.155369086424 110.735556345679 111.54879723457 112 111.824720987656 111.011480098765 111.72913430582 112.524373333332 112.948022257095 113 112.88988444445 111.263402666668 111.743897366834 111.550811462825 110.383290469137 108.756808691354 107.130326913572 107 107.561651753089 108.374892641971 108.811866469138 108 108 107.376811851849 106.563570962967 105.750330074076 105.062910814816 105.876151703707 106 105.497033086419 104.683792197528 104.117673808258 104.856940860134 104.909038222222 104.391336600264 104.730676130624 105.909038222222 105.919105024891 106.806319750788 106.364290765432 106 105.737475555558 105.151530666667 106.77801244445 108.404494222215 110.45268459019 112.744459582833 113.712508418039 108.241743706847 106.381471209883 105.909038222222 105.55396905978 104.981458387154 104.994440691354 109.06064513581 107.393328704124 107.328857853901
113.566508246907 113 112.656438913579 112 112 111.407132565968 111.098084879459 111.40976553086 112 111.926838518514 110.300356740749 110 110 110.284876246914 111.294351407415 113.734074074063 114 112.92432039506 112 112 112 112.791136790127 114.061831114407 113.605567341396 111.825262488554 111.232298195809 111.034599295562 110.329084444442 109.515843555551 109 108.889361777778 108.075787456794 108 107.449305679012 107 106.822823901238 106.009583012347 105.196008691355 104.536602601254 104.565139486151 105.238712493824 105.947713185184 105.134472296293 105 104.507990518519 103.694749629628 103 103 103 103.558547358029 104.371788246911 105.370058271605 106.996540049387 107.811510913576 109.250170469137 109.123347753081 108 108.01575480399 108.213453704238 108.766337173291 109.886995536668 110.438795061729 109.630555654324 108.817314765433 108.003740444449 106.761791124506 106.759282567904 108.192882172843 109 109 109 109.446179160492 109.740579950617 109 109 108.300857283952 108 108 108 108 108.18613698987 108.822021530859 109.147684300418 109.205736691361 110.056932740732 112.496655407405 112.354540641974 112 111.797701014084 111.243100049381 111.243100049381 112.48522085307 113.520570074072 113.666189037037 113.111303539407 113.726845528044 112.983366320991 112.1701254321 110.956869135799 109.168054438958 106.993477475613 106.795778575365 105.767915711502 106.64275990123 108.522894222221 109.89667950615 115.589365728388 121.651910949084 120.41404528946 117.654586775374 118.37353463399 120.406124958084 120.296244961509 121.88242872794 123.815736888885 125.221442765434 126.043115252394 127.054055041533 128.905137647294 130.23130627161 129.458518003103 126.141878518516 125.328637629625 124.692301451007 123.8137523401 119.260961686752 110.782695986101 104.867441291052 112.886712971178 117.429928296311 114.258157763689 106.496146908848 103.003409077106 112.389347231204 115.020331334677 115.02653906173 113.475471162818 111 111 111.178813783957 111.658484649127 112.088011485689 112.243100049381 112.243100049381 113.045194271599 113.708847164594 113.895813153236 113.573868759358 112.944942222225 112.131701333334 111.318127012342 111 110.074935703705 107.878404345677 107.065163456786 107 107.561651753089 108 108 108 108 108 107.127141925934 106 106 106 106 105.619304367947 105.243100049381 105.372548740736 106.185789629627 106.059333315005 105.430495209879 105.765491358024 107.195986567903 108 108 107.364290765432 107 106.801295260965 106.30044682644 106.915988815083 108.404494222215 112.078700633012 116.625117494373 118.5230590446 109.775108167045 108.086884653174 108.025946542717 107.366948050115 106 106.106635231851 111.183779465445 109.025288691338 108.391411789109
113.979947655936 113.271117002965 112.656438913579 112 112 112.45182034885 111.636211421162 111.173401117108 111.423171555557 111.39221169763 110.703930873647 110.576828444443 110.576828444443 110.697379968991 111.294351407415 113.734074074063 114 112.92432039506 112 112 112 112.334786586137 112.678926998128 112.733788781991 112.576828444443 112.532394666667 111.719153777776 110.905912888885 109.813396791276 109 108.889361777778 108.075787456794 108 107.449305679012 106.790071819007 106.245995456795 105.432754567904 105.546710358735 105.929980536022 105.66280864082 105.238712493824 105.977873707239 105.633733295244 105.185295413043 104.791795582373 104.271578074071 103.576828444443 103.576828444443 103.576828444443 103.813189798792 104.371788246911 105.263328203024 106.42070950391 108.170887624987 109.105865026579 108.799358284592 108.145111008402 108.641636345676 109.454877234567 108.779317344031 108.636815639782 108.711730170453 108.296827259262 107.483586370371 106.670012049388 106.183487019311 106.540294676636 107.616053728401 108.423171555557 108.423171555557 108.788268354198 109.188810329403 109.313392369717 109.041912895996 109.511013372888 108.877685728395 108.281078673528 108 108.080293835817 108.549394312713 109.784175382205 110.398639992748 110.184332641972 109.782565135804 110.611867568992 112.113389281873 112.150031514972 112 112.154170718683 112.623271195574 113.092371672471 113.045022121011 113.520570074072 113.666189037037 112.915176309043 112.446075832151 111.203441725627 110.598036825352 109.623140740737 107.99599209877 106.396340938273 105.583100049382 106.553719073287 108.284195535704 110.018015854767 111.753378742602 116.976964487944 121.065469849277 121.213313348135 121.44564351956 123.859622740968 123.735379954012 122.498372611217 122.999913912108 123.922025092637 124.900083292829 126.666202271444 128.761784526122 128.670685237833 128.897577876548 128.892076111177 127.533994371771 127.189853959776 127.573416856423 126.024532938286 120.326607407391 111.932850697679 108.803564712785 113.70999209273 117.429928296311 116.184233222419 111.875336231654 110.600800591644 113.009783475609 113.03437767592 112.359082271606 111.425795565047 110.486088868886 110.955189345782 112.159846168357 112.576828444443 113.147700455476 114.153656888885 114.153656888885 114.493080348605 113.866942854538 112.994595555556 112.423171555557 112.368113777783 111.554872888891 111.134622302678 110.714404232773 109.853842858623 108.45523279012 107.641991901229 107.145316102964 107.561651753089 108 107.891479228045 107.423964359966 107.893064836862 108 107.378886608475 106.576828444443 106.576828444443 106.576828444443 106.576828444443 106.576828444443 106.576828444443 106.706277135798 107.519518024689 106.820897975305 106.007323654322 105.900762613183 106.732208750556 108 108 107.730985934326 107.317861243095 107.151431566916 107.533124845073 107.064024368177 108.404494222215 114.828784564659 120.206290861063 118.785381800862 111.591173865743 111.59422894064 110.48705467151 108.405032296285 106.576828444443 106.706244415911 112.868031115046 110.564620506808 108.506637491969
114.283254123453 113.470013234571 112.656438913579 112 112 112.783283753086 111.806950716045 111 111 111 111 111 111 111.259491001925 112.115867734538 113.814817187031 114 112.92432039506 112 112 112 112 112 112.417618567901 113 112.955566222225 112.142325333334 111.329084444442 110.031687111103 109 108.889361777778 108.075787456794 108 107.449305679012 106.636064790121 105.822823901238 105.009583012347 105.803991308645 106.61223071605 106.149056790117 105.238712493824 106 106 105.939515115071 105.462723621387 104.694749629628 104 104 104 104 104.371788246911 105.185029135803 105.998270024694 108.434532740729 108.430615940908 108.050050606585 108.251567012342 109.005775014477 109.078242689205 108.33621941384 108 108 107.873655703705 107.060414814814 106.24684049383 106.515928609694 106.944720003306 107.192882172843 108.005577437359 108.746350651521 108.967291229079 109 109 109.072660938274 109.885901827157 109.300857283952 108.48728296296 108 108.139198814813 108.952439703705 110.531361185191 111.527333945502 111.160873861019 110.205736691361 111.018977580244 111.832218469135 112 112 112.267273086423 113.080513975306 113.893754864197 113.293004246912 113.520570074072 113.666189037037 112.852948148146 112.039707259263 110.452932740744 110 109.19996918518 107.767377348921 106.884059654321 106.070818765429 107.275731551803 108.508127720364 110.158421654261 113.386052781851 117.524724901036 118.91228725817 119.219825576663 121.225350198216 125.074890227206 125.00283852109 124.148984179693 123.963877371577 124 124.866038357054 128.014941234556 130.454663901229 129.588559407407 128.953164490017 128.974367835255 128.910890271605 128.910890271605 128.97573571579 126.34348240287 120.806759940049 115.082036077903 116.346697786012 118.177038120486 119.966790359828 119.10139818241 116.498706962964 115.646674136584 114.165127708258 112.622912105103 111.512739160492 110.973668053257 111.019964839502 111.833205728393 112.711991843467 113 113.394299242303 114.089109728395 114.089109728395 114.089109728395 113.418942272662 112.571423999999 112 111.944942222225 111.131701333334 111 110.504886123459 109.691645234568 108.878404345677 108.065163456786 107.251922567903 107.561651753089 108 107.811866469138 107.001374419753 107.814615308645 108 107.563570962967 107 107 107 107 107 107 107.129448691355 107.942689580246 107.244069530863 106.430495209879 106 106.391973135806 108 108 108 107.551049876541 107.262524444442 107.924234666666 107.110993777775 108.404494222215 115.701343999981 121.342542222221 119.151719790175 114.127339107371 113.889841083998 111.652907162125 109.183996422396 108.467916810915 110.749088125711 115.773468808515 112.960406913559 109.116684717929
114 113.470013234571 113 112.843198024688 112.029957135805 112 111.403475358023 111.40976553086 112.054551533058 112.208037925924 111.394797037042 111.907681185184 112.244618666667 112.459808865896 113 113 113.547348493471 112.811267383753 111.648919308639 111 111 111 111.60437767901 112 112 112.044433777775 112.857674666666 111.822287357532 110.157872073871 109 108.889361777778 108.075787456794 107.262546567903 106.449305679012 106 105.822823901238 105.009583012347 106.60798261729 106.38776928395 106 106 105.947713185184 105.134472296293 106.357537185179 106.507990518519 105.464169197856 104.334124752078 104.948683607427 104.254693530862 103.441452641971 103.371788246911 104.370058271605 105.996540049387 109.047532936641 108.033033146261 107.331103371573 107.755381333333 107.771234555722 107.970168457642 107.308710320984 107 107 107 107 107 107.566400395061 108.092867344692 108.244618666667 108.255366974924 109.682914850786 110 110 109.740579950617 109 109 109 109 109.079735393229 109.210568038186 109.011634136266 110.531361185191 112.016227962052 112.066401528265 110.794263308639 110.018977580244 110.832218469135 111.645459358026 112 112.267273086423 113 113 113 113 113 112.705896296292 111.079414518527 110.226466370372 110 108.79995377777 107.213589728394 108 108 107.346687604942 107.46655328395 109.541879282041 114.023284488722 118.487356737018 116.840449185181 116 118.516498542611 123.464751457666 124.471116307075 124.701904431218 124.609924333528 124.302438692333 125.215551895218 129.619487681328 132.673517334973 131.422855776816 129.782733728946 129.358011086823 130.219857990749 130.020924088829 129.094286878273 125.498072143989 121.136211135084 119.313164122828 124.610153438445 123.55104237535 123.40629637579 122.248593777784 120.157298813939 118.869932938513 116.629144173759 113.548538864198 111.638164730279 111.295500246914 112.191467460428 113.61901533629 113.755381333333 113.755381333333 113.39334320988 112.755381333333 112.755381333333 112.755381333333 112.290568676656 112 111.758183111108 111.013468160189 111.212402062109 111.07781980559 110.504886123459 109.691645234568 108.878404345677 108.065163456786 107.251922567903 107 107.374892641971 108 108 108 108.623188148151 108.563570962967 108 108 108 107.31027397531 107 107.316207802472 107.902216874926 107.287909887955 108.000549135805 107.675113876547 107.244618666667 107.196676693742 107.009227456794 107.822468345677 108 108 108 108 108 109.404494222215 116.449148025496 121.524575999996 119.065270915747 116.426614347154 114.925412690561 111.906438534599 110 110.969335052303 114.811168685761 117.467330535566 114.961141320086 109.490143295723
114.163913636038 113.470013234571 113 112.933936269194 112.591302019489 112.125409464784 111.748672532421 111.988446024686 112.801686913577 113.5632683142 113.220634064496 113.436722160516 113.578680493826 113.578680493826 113.521902021225 113.051295382047 112.580688742865 112.194717106197 111.648919308639 111 111 111 111.254636105263 111.421319506174 111.554913370635 112.044433777775 112.857674666666 112.717330189448 111.12621116048 109.406582458111 108.889361777778 108.075787456794 107.262546567903 106.449305679012 106 105.925352253564 105.582718003855 106.256154936079 106.163374763223 106.246212118456 106.578680493826 106.52639367901 105.713152790119 106.543427534652 106.507990518519 105.871392064695 105.510111913401 105.039312323571 104.254693530862 103.441452641971 103.586934853233 104.841666013752 105.997541152352 107.964927204516 107.532873669261 106.74634922242 106.421319506174 106.486127407408 107.299368296299 107.130065679988 107 107 107 107 107 107.566400395061 108.8190232953 110.04574383662 109.581260259168 109.923894508877 110 110.258195176928 110.319260444443 109.536633026184 109.066026387006 109 109.296699348187 109.904638419748 110.439481679012 109.626240790121 110.666957255581 111.24391091269 111.255953368502 110.794263308639 110.018977580244 110.832218469135 111.271944617979 111.684059082455 112.112607364786 112.421319506174 112.421319506174 112.830444157704 113.301243747535 113.192340708042 112.212311840715 111.056436702128 110.226466370372 109.660445031859 108.221273283944 106.634909234568 107.421319506174 107.421319506174 107.524125389906 107.775248493023 108.795353831145 111.658310047459 118.762816187246 117.002566368353 116 117.130413442812 119.675446141786 121.760497150857 123.076198901154 122.482592583121 122.958583995328 126.256924460721 132.261411950602 134.701134617275 133.835030123453 131.185082656471 129.741750249203 131.418884037494 130.13503650942 127.70237796272 126.784975696553 126.288366224362 126.018554401296 128.674027236721 125.434094163396 122.309102265817 119.580470123467 118.113419647002 118.932906981199 117.777031842599 114.882600691357 112.32219047158 111.295500246914 112.045955243083 112.388589492791 112.421319506174 112.421319506174 112.059281382721 111.421319506174 111.421319506174 111.421319506174 111.421319506174 111.421319506174 111.319437333962 111.086918639807 112.370766167881 111.896807506168 111.083566617285 110.09188684046 108.878404345677 108.065163456786 107.684820385729 107.25366357999 107.374892641971 108.108869204545 108.578680493826 108.578680493826 108.841241816658 108.816123933637 108.434201377798 108 108 107.31027397531 107 107.316207802472 108.149818865277 109.091032143642 109.47584923961 109.009175703705 108.578680493826 108.382693925923 107.582568201365 107.92520245107 108 108 108 108 108 108.998117517172 114.793384655758 118.856452345679 116.213978266775 112.490408072027 111.94216162888 110.778776955936 109.773968142107 110.11871992267 112.839951208971 112.711978819496 110.483445871405 107.051825712564
114.283254123453 113.470013234571 113 113 113 112.216716246914 112 112.40976553086 113.223006419751 114 114 114 114 114 113.901882864195 113.088641975312 112.275401086421 112 111.648919308639 111 111 111 111 111 111.230859456792 112.044433777775 112.857674666666 113 111.547530666654 109.702602666669 108.889361777778 108.075787456794 107.262546567903 106.449305679012 106 106 106 106 106 106.425471604941 107 106.947713185184 106.134472296293 106.67876859259 106.507990518519 106 105.881508740737 105.067934419753 104.254693530862 103.441452641971 103.743576493823 105.185029135803 105.998270024694 106.886380229194 107.034589321515 106.561673876541 106 106.064807901233 106.878048790124 107 107 107 107 107 107 107.566400395061 108.79430795405 110.074464013153 110 110 110 110.446179160492 110.740579950617 109.927339061726 109.114098172843 109 109.51271703704 110.325957925922 110.860801185187 110.047560296295 111.460720136513 111.382230167901 111 110.981018905572 110.909491695128 110.984520616816 110.414090180478 110.546291358026 111.334873856341 112 112 112.706995753088 113.520570074072 113.332378074074 111.719463176693 110.168010320615 109.318725530865 108.505484641974 107.255323260001 106.213589728394 107.024355247058 107.762567214262 107.968014892615 108 108.305607748338 109.686926518865 114.866487538964 115.195644675509 116.543985013184 117.879386287269 118.333867941865 120.025611872248 120.945735905049 121.074798642822 123.001712621936 127.076245037587 131.288569283937 133.728291950611 134.062521185561 132.058606387131 130.770682469126 132.79718069518 131.908910884601 129.565234456754 129.314073773588 129.815481679014 129.998354234253 130.886988239089 126.215569753361 122.51402591752 119.263664535028 117.467927703703 118.909945588267 117.358492732172 115.008014793842 112.538217481475 111.295500246914 112 112 112.667694534731 112.907740839507 112.217065925937 111 111 111 111 111.389035938033 111.907740839507 111.967878201638 112.856148012217 112.318127012342 111.504886123459 110.383290469137 108.878404345677 108.065163456786 108 107.94818248077 107.94232811993 108.188133530862 109 109 109 109 108.750330074076 108 108 107.936366455992 107.451177231128 107.316207802472 108.25889738271 109.885379160492 110 109.430495209879 109 108.804013432097 108 108 108 108 108 108 108 108.702247111107 114.154879999986 118.312213970902 116.221232197528 112.155027753072 111.214423358415 111.470824730285 111.779445369381 111.779640731 111.951910182563 109.662245359266 107.838019262865 105.679705402922
114 114 114 113.843198024688 113.029957135805 113 113 113.40976553086 114.223006419751 115 115 115 114.523696592592 114 113.901882864195 113.088641975312 112.275401086421 112 111.648919308639 111 111 111 110.39562232099 110.417618567901 111.230859456792 111.989270609692 111.792897954731 112.429446320989 111.790217876534 110.4611334321 109.674608270043 109.057487117612 108.262546567903 106.898611358024 106 105.86560647819 105.248738244259 105.851321377315 106 106.425471604941 107.238712493824 107.895426370368 106.268944592586 107.357537185179 107.507990518519 106.694749629628 105.881508740737 105.067934419753 104.254693530862 103.576324644985 103.523482058077 104.185029135803 104.998270024694 105 105.625085234568 106 106.251567012342 107 107 107 107 107.076812544033 107.21096097405 107.01458831909 107 107.566400395061 108.287969593706 108.997988048913 110.006123061726 110.819363950617 110.214226608416 109.758530765431 109.821172726188 110 110 109.300857283952 110.025434074079 111 110.894413416452 110.277545182522 112.353622705738 112.421078518522 112 112 111.976439917981 110.966826374129 109.623470626507 109.344397390325 110.090342079454 111 111 111.536278029747 112.279100839503 112.344114724751 111.146922971519 109.099945614788 108.226466370372 107.413225481481 106.696576006833 106.668648691356 108.295130469138 109.92161224692 109.58815683951 109.128810970208 108.787767511912 108.428206222217 110.054687999999 112.947048626906 117.731638123483 120.39096443611 119.043364341035 118.03954603688 119.158748347274 121.266821135816 124.029842285928 126.771949442233 128.637862564733 131.470330541328 133.322330864198 133.165741889223 133.034952912594 134.898778469135 134.085537580244 133.448014652291 132.700525037039 132.155944432855 132 132 127.61812251098 124.199698404268 121.041515851864 118.901876483334 119.341324246909 116.901601580236 114.460878617286 112.878019127678 112.241469234569 112.294145539411 112.686890849332 114.931076740744 115.308128117301 114.241800691369 112.965876938275 112.965876938275 111.776420560274 111.334353970854 112.098621234571 113.241469234569 113.283232252887 113.900100486818 113.318127012342 112.504886123459 111.074935703705 109 109 108.251922567903 108.561651753089 109 109.188133530862 110 110 109.376811851849 109 108.750330074076 108.062910814816 108.876151703707 109 108.497033086419 108.468916714528 109.741835851847 111.36831762963 110.54447404823 109.809482330202 109.773262842004 110.045482666666 109.23924108764 109.042868432681 109 109 108.800867132213 108.223174237522 108.026801582561 109.574065294612 114.756386741767 118.920622086819 117.967874538318 113.284801859931 112.025723643494 113.735309490384 115.611273312994 115.271492203271 111.410492080062 107.961155869537 105.954344691351 105.131165325056
114 114 114 113.933390149209 113.58792349193 113.124654671527 113 113.40976553086 114.223006419751 114.978958844634 114.51118461303 114.424802370369 114.222467553887 113.836139858037 113.326685234564 112.513444345682 112.116991034314 112 111.648919308639 110.905290827193 110.437516595584 110.424802370369 110.168061299728 110.417618567901 111.098069644467 111.380368592594 110.567127703703 110.709808888688 110.159777491059 109.127405037038 108.424802370369 108.424802370369 107.687348938272 106.95692986456 106.575197629631 106.575197629631 106.575197629631 106.575197629631 106.223043972971 106.670201863579 107.813910123455 108.470623999999 106.844142222217 107.151882643759 107.215795576392 106.87032891911 106.456706370367 105.643132049384 104.401192646097 104.321275116375 104.575197629631 104.653798445107 104.999265102389 105 105.265537689328 105.424802370369 105.821070131904 107 107 106.602371815242 106.715198946455 107.501078066954 108.448853333335 107.635612444444 106.708766504265 106.99120276543 107.424802370369 107.810566716056 109.434447402686 110.715462523186 109.37005886325 108.168161174864 108.258242587605 109.424802370369 109.424802370369 109.127804887366 109.730520449703 110.424802370369 110.665002855354 112.06832555018 113.241338782537 112.996276148152 112.575197629631 112.338519115232 111.386847209881 109.760365432099 108.779343012343 108.424802370369 108.959348543216 110.424802370369 110.424802370369 110.018140089034 110.370174814811 110.181982814813 108.787136765504 108.441670108225 107.651268740742 107.17553916403 107.460175828316 108.454718410563 109.644291771664 111.738547781055 111.497082864203 110.415481632287 109.575197629631 109.761934617279 111.388416395061 112.906636104616 117.156440493853 120.476889068726 120.164265777241 118.082030917561 121.243063516991 123.93427792594 123.97737044704 122.938735407411 125.527625205692 131.464926576584 133.517227704492 133.798471070325 134.150492049377 135.473976098766 134.660735209875 134.993770847834 134.609451061731 133.59248375068 132.575197629631 132.575197629631 130.311924183033 128.252568915711 125.617898666681 123.031639612514 122.035933092016 120.063984656951 117.70353303704 115.190528650081 113.745168671211 114.431283827963 116.525539837354 119.355352192424 120.300790518522 119.784957742062 118.775168075729 118.30739384412 114.971782461145 113.181120850812 113.67886552895 115.011302757966 114.543528526362 114.075754294753 112.925915286132 111.929688493829 110.677103004236 109 109 108.682214933626 109.136849382719 109.359560270603 109.188133530862 110 110 109.73526819748 109.324164682027 108.893939623657 108.601922292886 108.947388950168 109 108.786338462893 109.705703015501 112.409292641971 114.035774419754 112.203724906973 111.902775434971 112.150395259261 111.841677682061 110.560662561561 109.279647441074 109.365658444858 109.575197629631 109.575197629631 109.455852256155 108.174837135655 110.510672207046 115.106086678215 118.09607348148 116.896244985826 113.765589004588 115.656960522699 119.519674507961 120.420776349217 117.33503683952 114.055168130568 109.521189454503 107.288073086413 105.855642374017
